3.38840000 2.70140000 1.68920000 0 255 212
3.40160000 2.70430000 1.68690000 0 255 226
3.39390000 2.71550000 1.68570000 0 255 205
3.39460000 2.72720000 1.66280000 0 255 224
3.40100000 2.72150000 1.67220000 0 255 208
3.39450000 2.72500000 1.67530000 0 255 204
3.39210000 2.73180000 1.67520000 0 255 205
3.39530000 2.73220000 1.66920000 0 255 225
3.38700000 2.73440000 1.67570000 0 253 217
3.40040000 2.71940000 1.67820000 0 255 208
3.40210000 2.72150000 1.68170000 0 255 195
3.39350000 2.72800000 1.68400000 0 255 218
3.40260000 2.72170000 1.69150000 0 255 213
3.39070000 2.73570000 1.68320000 0 255 229
3.39740000 2.69230000 1.69520000 0 255 240
3.38710000 2.69080000 1.70670000 0 255 219
3.39570000 2.69350000 1.70370000 0 255 220
3.40080000 2.69990000 1.70220000 0 255 238
3.39380000 2.70410000 1.69490000 0 255 205
3.39490000 2.70460000 1.70480000 0 255 230
3.38850000 2.70690000 1.70720000 0 255 225
3.39410000 2.71520000 1.70360000 0 255 201
3.39510000 2.68550000 1.71470000 0 255 228
3.39310000 2.69450000 1.71530000 0 255 226
3.39490000 2.68580000 1.72490000 0 252 223
3.38720000 2.69430000 1.72450000 0 255 188
3.39310000 2.69600000 1.72390000 0 255 205
3.39730000 2.70280000 1.71420000 0 255 213
3.38700000 2.71040000 1.71670000 0 255 235
3.39470000 2.71420000 1.71380000 0 255 194
3.39380000 2.70440000 1.72220000 0 255 227
3.39190000 2.71820000 1.69920000 0 255 242
3.38710000 2.72790000 1.69470000 0 255 211
3.39470000 2.72490000 1.69640000 0 255 195
3.39320000 2.73110000 1.69620000 0 255 220
3.39400000 2.72550000 1.70520000 0 255 197
3.39370000 2.73950000 1.70420000 0 255 238
3.39310000 2.72710000 1.71400000 0 255 208
3.39380000 2.71730000 1.72380000 0 255 205
3.39380000 2.72570000 1.72510000 0 245 205
3.39070000 2.74660000 1.71020000 0 255 229
3.39110000 2.73320000 1.71770000 0 255 167
3.32680000 2.75480000 1.66420000 0 255 212
3.33480000 2.75580000 1.66550000 0 184 246
3.32710000 2.75870000 1.67020000 0 136 255
3.33270000 2.75860000 1.67520000 0 255 221
3.34720000 2.75430000 1.66320000 0 170 255
3.34260000 2.75860000 1.67120000 0 255 255
3.33280000 2.76510000 1.66220000 0 187 255
3.33230000 2.75190000 1.68120000 0 255 246
3.32330000 2.75150000 1.69020000 0 161 255
3.33330000 2.75570000 1.69020000 0 255 195
3.32720000 2.75670000 1.68920000 0 255 233
3.35100000 2.75550000 1.68450000 0 255 215
3.34220000 2.75940000 1.68420000 0 229 255
3.35070000 2.75160000 1.69320000 0 255 238
3.33640000 2.76630000 1.68520000 0 153 255
3.32430000 2.76940000 1.68820000 0 161 255
3.36710000 2.75070000 1.66620000 0 255 208
3.35570000 2.75590000 1.66380000 0 219 240
3.35560000 2.75330000 1.67620000 0 246 255
3.37670000 2.75250000 1.66450000 0 255 209
3.38320000 2.75400000 1.66720000 0 255 237
3.37170000 2.76080000 1.66620000 0 238 255
3.37390000 2.75740000 1.67620000 0 238 255
3.37040000 2.75540000 1.68020000 0 255 208
3.36470000 2.76340000 1.67770000 0 255 224
3.35600000 2.77040000 1.68220000 0 204 255
3.34030000 2.75470000 1.69720000 0 255 221
3.34750000 2.76190000 1.70120000 0 238 255
3.33970000 2.75680000 1.70920000 0 255 216
3.33680000 2.76010000 1.71720000 0 255 250
3.32470000 2.75060000 1.71920000 0 255 208
3.32640000 2.75100000 1.72470000 0 255 239
3.34720000 2.75220000 1.71120000 0 255 204
3.35320000 2.75270000 1.71420000 0 229 255
3.34410000 2.75250000 1.72370000 0 250 238
3.32440000 2.76840000 1.72020000 0 199 248
3.34500000 2.76790000 1.71620000 0 255 238
3.36530000 2.75720000 1.69400000 0 255 201
3.35630000 2.75280000 1.70820000 0 238 255
3.36740000 2.75330000 1.70520000 0 255 208
3.37090000 2.75180000 1.69720000 0 195 238
3.38060000 2.75510000 1.69420000 0 255 238
3.37370000 2.75560000 1.70470000 0 199 233
3.37160000 2.76100000 1.70820000 0 144 255
3.35870000 2.76130000 1.71320000 0 255 233
3.36430000 2.76320000 1.71520000 0 255 214
3.37490000 2.75310000 1.71320000 0 229 227
3.37140000 2.75620000 1.72320000 0 255 144
3.36930000 2.77260000 1.72420000 0 212 255
3.37170000 2.76550000 1.71470000 0 144 255
3.37140000 2.76700000 1.72370000 0 178 255
3.37790000 2.69360000 1.73050000 0 255 195
3.37730000 2.68790000 1.73920000 0 255 238
3.38540000 2.69570000 1.73470000 0 255 205
3.37420000 2.70890000 1.73820000 0 255 197
3.37740000 2.69410000 1.74520000 0 255 220
3.38500000 2.69370000 1.74520000 0 255 235
3.37350000 2.69330000 1.75600000 0 195 243
3.38470000 2.69550000 1.75620000 0 239 209
3.36850000 2.70330000 1.75670000 0 148 255
3.36990000 2.71110000 1.75320000 0 170 255
3.37850000 2.70430000 1.74670000 0 255 216
3.38500000 2.70460000 1.74500000 0 255 228
3.37500000 2.70700000 1.75320000 0 235 221
3.38610000 2.70400000 1.75470000 0 255 224
3.33140000 2.72880000 1.73920000 0 255 250
3.32410000 2.73570000 1.73570000 0 239 247
3.32650000 2.73330000 1.74090000 0 226 255
3.33120000 2.73360000 1.73620000 0 255 255
3.32420000 2.74570000 1.73560000 0 243 232
3.34450000 2.73330000 1.72620000 0 254 228
3.34550000 2.73260000 1.73310000 0 233 240
3.34840000 2.74520000 1.72620000 0 255 233
3.35440000 2.73250000 1.73420000 0 244 243
3.34660000 2.74640000 1.73540000 0 249 235
3.35090000 2.74330000 1.73920000 0 255 225
3.33050000 2.72530000 1.74220000 0 255 246
3.32820000 2.72830000 1.75220000 0 255 238
3.33070000 2.72810000 1.75520000 0 255 255
3.34400000 2.72900000 1.74370000 0 255 241
3.34270000 2.72530000 1.75720000 0 255 246
3.33260000 2.73470000 1.74420000 0 242 235
3.32500000 2.74440000 1.74620000 0 247 232
3.33530000 2.74450000 1.74500000 0 252 241
3.32440000 2.73360000 1.75720000 0 244 239
3.33540000 2.73340000 1.75450000 0 215 252
3.32550000 2.74240000 1.75120000 0 240 229
3.33100000 2.74030000 1.75020000 0 195 255
3.34330000 2.73370000 1.74320000 0 226 243
3.34380000 2.74550000 1.74470000 0 255 235
3.35470000 2.74510000 1.74710000 0 240 241
3.34370000 2.73390000 1.75170000 0 238 233
3.34760000 2.74650000 1.75220000 0 248 226
3.35090000 2.74150000 1.75720000 0 255 246
3.35870000 2.72810000 1.73720000 0 238 255
3.36420000 2.72850000 1.73550000 0 255 243
3.37320000 2.71760000 1.73120000 0 255 208
3.37690000 2.72580000 1.73120000 0 255 213
3.38570000 2.72550000 1.72570000 0 255 187
3.38600000 2.71630000 1.73470000 0 255 208
3.38510000 2.72790000 1.73510000 0 255 193
3.36360000 2.73380000 1.73610000 0 254 236
3.36550000 2.74430000 1.73520000 0 246 241
3.36650000 2.74320000 1.74070000 0 255 193
3.38540000 2.74290000 1.72870000 0 255 227
3.37650000 2.73630000 1.73480000 0 255 203
3.38440000 2.73410000 1.73350000 0 249 206
3.37470000 2.74560000 1.73370000 0 253 197
3.38360000 2.74480000 1.73620000 0 243 225
3.35640000 2.72960000 1.74920000 0 255 238
3.36650000 2.72840000 1.75550000 0 255 243
3.37460000 2.71680000 1.74450000 0 255 206
3.38570000 2.71770000 1.74520000 0 248 234
3.37520000 2.72790000 1.74490000 0 242 221
3.38540000 2.72580000 1.74500000 0 255 204
3.38560000 2.71700000 1.75310000 0 255 211
3.37460000 2.72510000 1.75420000 0 216 244
3.35920000 2.73330000 1.74820000 0 255 233
3.36590000 2.73740000 1.74320000 0 255 214
3.35640000 2.73640000 1.75600000 0 255 230
3.36560000 2.73480000 1.75400000 0 255 235
3.36610000 2.74350000 1.75300000 0 249 235
3.37550000 2.73600000 1.74580000 0 241 222
3.38430000 2.73520000 1.74440000 0 255 204
3.37470000 2.74500000 1.74520000 0 245 213
3.38460000 2.74260000 1.74820000 0 250 235
3.37800000 2.73540000 1.75550000 0 244 225
3.38550000 2.73400000 1.75420000 0 247 201
3.37490000 2.74510000 1.75460000 0 241 209
3.38140000 2.74280000 1.75450000 0 229 202
3.36920000 2.69200000 1.76020000 0 246 255
3.38130000 2.69420000 1.76390000 0 206 249
3.37850000 2.69510000 1.76600000 0 190 243
3.36980000 2.70780000 1.76520000 0 221 255
3.38490000 2.70260000 1.76380000 0 238 234
3.37950000 2.70930000 1.76220000 0 195 255
3.37850000 2.70590000 1.77320000 0 255 227
3.38610000 2.71540000 1.76550000 0 240 236
3.38570000 2.71560000 1.77190000 0 255 209
3.36630000 2.69950000 1.78620000 0 255 233
3.37610000 2.69850000 1.77450000 0 141 255
3.38460000 2.69520000 1.77720000 0 255 210
3.37920000 2.69640000 1.78220000 0 255 231
3.38590000 2.69500000 1.78560000 0 255 220
3.38450000 2.70470000 1.77370000 0 232 237
3.37350000 2.70440000 1.78560000 0 218 243
3.38310000 2.70490000 1.78560000 0 217 220
3.32870000 2.72930000 1.76220000 0 255 238
3.32850000 2.72750000 1.77120000 0 255 255
3.33120000 2.72720000 1.76820000 0 255 255
3.34780000 2.72710000 1.77320000 0 255 250
3.32450000 2.73430000 1.76430000 0 231 250
3.33430000 2.73370000 1.76470000 0 242 241
3.32600000 2.74520000 1.76320000 0 255 238
3.33660000 2.74530000 1.76390000 0 226 230
3.33250000 2.74300000 1.77220000 0 238 238
3.34020000 2.73330000 1.76520000 0 255 238
3.35380000 2.74530000 1.76460000 0 236 239
3.35400000 2.73410000 1.76750000 0 255 240
3.35330000 2.73330000 1.77300000 0 244 242
3.33810000 2.72910000 1.77520000 0 229 255
3.32930000 2.72820000 1.78720000 0 255 250
3.35160000 2.72850000 1.77820000 0 255 242
3.32570000 2.73430000 1.77670000 0 242 235
3.33710000 2.73310000 1.77390000 0 228 249
3.32640000 2.74290000 1.77770000 0 255 218
3.33640000 2.73570000 1.78610000 0 229 245
3.32340000 2.74470000 1.78520000 0 237 234
3.33430000 2.74660000 1.78410000 0 255 224
3.34220000 2.73620000 1.77760000 0 232 249
3.34730000 2.74540000 1.77490000 0 255 217
3.35080000 2.74440000 1.77920000 0 255 216
3.34550000 2.73370000 1.78320000 0 237 249
3.35410000 2.73260000 1.78570000 0 245 251
3.34740000 2.74640000 1.78270000 0 238 233
3.35270000 2.74590000 1.78570000 0 246 228
3.37020000 2.71670000 1.76220000 0 153 255
3.35820000 2.72690000 1.75820000 0 255 238
3.36910000 2.72580000 1.76320000 0 208 246
3.36070000 2.72850000 1.77120000 0 255 255
3.37690000 2.72350000 1.76320000 0 243 243
3.38420000 2.72570000 1.76370000 0 242 227
3.37730000 2.72630000 1.77290000 0 238 232
3.36650000 2.73450000 1.76520000 0 250 238
3.36440000 2.74780000 1.76120000 0 255 222
3.37480000 2.73550000 1.76450000 0 239 212
3.38440000 2.73450000 1.76330000 0 255 218
3.37460000 2.74370000 1.76610000 0 255 197
3.38400000 2.74290000 1.76620000 0 229 244
3.36870000 2.72610000 1.78820000 0 255 238
3.38570000 2.72330000 1.77600000 0 255 202
3.38000000 2.72160000 1.78320000 0 255 246
3.38550000 2.72420000 1.78500000 0 255 198
3.36630000 2.73530000 1.77480000 0 235 243
3.36480000 2.74380000 1.77360000 0 255 234
3.36290000 2.73540000 1.78390000 0 252 244
3.36940000 2.74140000 1.78320000 0 255 208
3.37370000 2.73560000 1.77500000 0 246 226
3.38450000 2.73560000 1.77500000 0 255 207
3.37520000 2.74460000 1.77440000 0 245 211
3.38280000 2.74400000 1.77390000 0 255 209
3.37610000 2.73560000 1.78260000 0 255 208
3.38270000 2.73650000 1.78470000 0 255 207
3.37370000 2.74340000 1.78420000 0 255 204
3.39330000 2.69420000 1.73520000 0 253 224
3.38770000 2.70480000 1.73320000 0 255 216
3.38730000 2.71520000 1.72550000 0 240 199
3.39490000 2.71550000 1.73270000 0 255 198
3.40040000 2.71470000 1.72820000 0 255 216
3.39520000 2.70300000 1.73480000 0 255 214
3.40440000 2.70580000 1.73820000 0 255 233
3.39200000 2.69650000 1.74320000 0 255 208
3.39310000 2.69440000 1.75290000 0 255 212
3.39290000 2.70430000 1.74530000 0 254 223
3.39390000 2.70470000 1.75380000 0 255 205
3.40210000 2.72060000 1.72920000 0 255 221
3.39310000 2.73120000 1.72720000 0 255 193
3.39290000 2.72610000 1.73510000 0 255 199
3.39250000 2.73170000 1.73370000 0 255 201
3.39320000 2.71600000 1.74500000 0 255 213
3.39440000 2.72330000 1.74610000 0 255 198
3.40130000 2.71800000 1.74320000 0 255 212
3.39240000 2.71610000 1.75270000 0 255 213
3.38740000 2.72350000 1.75460000 0 255 217
3.39520000 2.72490000 1.75540000 0 255 213
3.39200000 2.73300000 1.74220000 0 255 157
3.39110000 2.74170000 1.74470000 0 255 235
3.39200000 2.73330000 1.75520000 0 255 223
3.39390000 2.69350000 1.76570000 0 255 218
3.39490000 2.69440000 1.77090000 0 255 191
3.39480000 2.70700000 1.76200000 0 255 229
3.39330000 2.71300000 1.76300000 0 255 214
3.40310000 2.71330000 1.77070000 0 255 220
3.40100000 2.68750000 1.78020000 0 255 242
3.40120000 2.69430000 1.77720000 0 255 221
3.40040000 2.69000000 1.78820000 0 255 225
3.39350000 2.69440000 1.78400000 0 255 230
3.39080000 2.70470000 1.77620000 0 255 212
3.39530000 2.71320000 1.77400000 0 255 220
3.39630000 2.70270000 1.78480000 0 255 213
3.40260000 2.71070000 1.78220000 0 255 225
3.39220000 2.72360000 1.76460000 0 255 217
3.39200000 2.73100000 1.77070000 0 255 218
3.39230000 2.73690000 1.76370000 0 255 233
3.39430000 2.72450000 1.77470000 0 255 208
3.39480000 2.71640000 1.78490000 0 255 202
3.39230000 2.72720000 1.78470000 0 255 208
3.38920000 2.74200000 1.78320000 0 255 225
3.32550000 2.75100000 1.73720000 0 255 246
3.33600000 2.75530000 1.73350000 0 215 245
3.33960000 2.75080000 1.72820000 0 255 216
3.34920000 2.75200000 1.73620000 0 255 255
3.35250000 2.75420000 1.73920000 0 255 246
3.32640000 2.76550000 1.73120000 0 131 255
3.33520000 2.76850000 1.72590000 0 135 255
3.33500000 2.76390000 1.73270000 0 195 244
3.34430000 2.77030000 1.72820000 0 161 255
3.35240000 2.77040000 1.73020000 0 144 255
3.34830000 2.76450000 1.73820000 0 144 255
3.33470000 2.75120000 1.74550000 0 223 249
3.32450000 2.76380000 1.74870000 0 187 255
3.33590000 2.75580000 1.75320000 0 221 237
3.32320000 2.75720000 1.75320000 0 208 242
3.33670000 2.76370000 1.75220000 0 221 244
3.34690000 2.75540000 1.74720000 0 233 248
3.35360000 2.76330000 1.74550000 0 175 246
3.34070000 2.75470000 1.75520000 0 220 249
3.34440000 2.76500000 1.74770000 0 221 246
3.36480000 2.75480000 1.72550000 0 255 216
3.36560000 2.75460000 1.73320000 0 255 214
3.37390000 2.75190000 1.73790000 0 255 175
3.38450000 2.75820000 1.73820000 0 187 255
3.35540000 2.77090000 1.72620000 0 144 255
3.36680000 2.76790000 1.72570000 0 180 244
3.36480000 2.76840000 1.73420000 0 161 255
3.36740000 2.77220000 1.73500000 0 163 255
3.37300000 2.76420000 1.73870000 0 221 248
3.35650000 2.75360000 1.74570000 0 165 255
3.36580000 2.75590000 1.74470000 0 223 238
3.36460000 2.76370000 1.74400000 0 201 245
3.35820000 2.76360000 1.75290000 0 206 242
3.37240000 2.75460000 1.74440000 0 228 206
3.38080000 2.75480000 1.74870000 0 255 246
3.37420000 2.75120000 1.75320000 0 255 207
3.38100000 2.75700000 1.75120000 0 208 255
3.38000000 2.76070000 1.75720000 0 255 255
3.36790000 2.77170000 1.74290000 0 161 255
3.37040000 2.77290000 1.74820000 0 170 255
3.36570000 2.76490000 1.75490000 0 211 239
3.37040000 2.77240000 1.75470000 0 174 255
3.37590000 2.76410000 1.74420000 0 216 255
3.32940000 2.75610000 1.76320000 0 170 255
3.33570000 2.75830000 1.76470000 0 246 242
3.32900000 2.76370000 1.76920000 0 255 242
3.34550000 2.75070000 1.77320000 0 243 245
3.34500000 2.75630000 1.76670000 0 212 255
3.34740000 2.76270000 1.76620000 0 243 235
3.34120000 2.76480000 1.75820000 0 255 225
3.32420000 2.75520000 1.77620000 0 246 234
3.32950000 2.75050000 1.78620000 0 255 255
3.36510000 2.75540000 1.76490000 0 243 215
3.36630000 2.75840000 1.75870000 0 255 225
3.36830000 2.76370000 1.77120000 0 153 255
3.37540000 2.75540000 1.76460000 0 255 229
3.38340000 2.75050000 1.76120000 0 238 255
3.38230000 2.76150000 1.76020000 0 221 255
3.36960000 2.77080000 1.76120000 0 161 255
3.36640000 2.76600000 1.76490000 0 201 250
3.37370000 2.77020000 1.76920000 0 153 255
3.36840000 2.75200000 1.77650000 0 209 225
3.35520000 2.75040000 1.78720000 0 255 221
3.36810000 2.75500000 1.78420000 0 229 219
3.35610000 2.76100000 1.78920000 0 246 255
3.37080000 2.75640000 1.78450000 0 150 255
3.37100000 2.76330000 1.77590000 0 152 255
3.37090000 2.76750000 1.78420000 0 255 246
3.36840000 2.76590000 1.78620000 0 161 255
3.36100000 2.77300000 1.78820000 0 204 255
3.39010000 2.74810000 1.75520000 0 255 255
3.08290000 2.72890000 1.79020000 0 255 250
3.07290000 2.72660000 1.80420000 0 246 255
3.08820000 2.72910000 1.80420000 0 255 235
3.09300000 2.72960000 1.80420000 0 255 225
3.07070000 2.73530000 1.79520000 0 255 212
3.07240000 2.74300000 1.79460000 0 220 255
3.07380000 2.73640000 1.80400000 0 248 234
3.07300000 2.74510000 1.80430000 0 242 240
3.08390000 2.73440000 1.79500000 0 255 225
3.09490000 2.73450000 1.79250000 0 252 230
3.08570000 2.74450000 1.79380000 0 244 237
3.08530000 2.73510000 1.80380000 0 241 238
3.09680000 2.73380000 1.80220000 0 248 245
3.09130000 2.74460000 1.79750000 0 246 232
3.08500000 2.74300000 1.80390000 0 246 234
3.09380000 2.74520000 1.80410000 0 245 242
3.06880000 2.72960000 1.81820000 0 246 255
3.07950000 2.72860000 1.82120000 0 255 238
3.07430000 2.73420000 1.82120000 0 255 242
3.07580000 2.73350000 1.81550000 0 249 245
3.07620000 2.74430000 1.81350000 0 246 227
3.08810000 2.73390000 1.81820000 0 255 255
3.09500000 2.73420000 1.81500000 0 251 249
3.08680000 2.74640000 1.81400000 0 226 245
3.09750000 2.74660000 1.81520000 0 243 240
3.11500000 2.72850000 1.80470000 0 220 255
3.11690000 2.72830000 1.79380000 0 234 245
3.12660000 2.72690000 1.79120000 0 246 244
3.10470000 2.73540000 1.79700000 0 233 252
3.11400000 2.73380000 1.79490000 0 240 246
3.10610000 2.74350000 1.79460000 0 244 229
3.10470000 2.73480000 1.80450000 0 252 234
3.10560000 2.74400000 1.80250000 0 249 233
3.12640000 2.73630000 1.79500000 0 246 244
3.11710000 2.74490000 1.79320000 0 244 242
3.12340000 2.74050000 1.79120000 0 255 246
3.11610000 2.73310000 1.80470000 0 243 240
3.12570000 2.73380000 1.80420000 0 255 233
3.10430000 2.72680000 1.80720000 0 255 250
3.11470000 2.72960000 1.81170000 0 229 255
3.12330000 2.72920000 1.81370000 0 255 235
3.12330000 2.72810000 1.82020000 0 255 225
3.10560000 2.74570000 1.81290000 0 227 241
3.11200000 2.74370000 1.81220000 0 229 255
3.10550000 2.73370000 1.81480000 0 253 247
3.11380000 2.73410000 1.81500000 0 244 239
3.11570000 2.74720000 1.80770000 0 216 238
3.12520000 2.74280000 1.80560000 0 255 229
3.12480000 2.73330000 1.81590000 0 248 247
3.12480000 2.74420000 1.81350000 0 246 243
3.08430000 2.72870000 1.82920000 0 255 229
3.08390000 2.72620000 1.83720000 0 255 246
3.07450000 2.74500000 1.82850000 0 255 230
3.07790000 2.73520000 1.83560000 0 253 233
3.08330000 2.73580000 1.83560000 0 248 231
3.07600000 2.74510000 1.83520000 0 255 225
3.08720000 2.73220000 1.82370000 0 252 244
3.09330000 2.73480000 1.82570000 0 255 232
3.08660000 2.74660000 1.82600000 0 239 238
3.09530000 2.74330000 1.82280000 0 251 236
3.09510000 2.73480000 1.83570000 0 244 243
3.08610000 2.74560000 1.83650000 0 240 230
3.09790000 2.74350000 1.83670000 0 255 237
3.06970000 2.72630000 1.85020000 0 255 242
3.08570000 2.72970000 1.84920000 0 255 246
3.07530000 2.73540000 1.84280000 0 247 236
3.07350000 2.74200000 1.84920000 0 255 242
3.08240000 2.74730000 1.85120000 0 255 208
3.09490000 2.73390000 1.84420000 0 229 250
3.08430000 2.74390000 1.84500000 0 246 239
3.08480000 2.73520000 1.84600000 0 250 249
3.09400000 2.74420000 1.84820000 0 233 233
3.09950000 2.72920000 1.82920000 0 255 250
3.11010000 2.72950000 1.82220000 0 204 255
3.10420000 2.72930000 1.83520000 0 238 246
3.11440000 2.72890000 1.83320000 0 238 246
3.10340000 2.73630000 1.82270000 0 249 231
3.11480000 2.73270000 1.82320000 0 225 246
3.10530000 2.74760000 1.82320000 0 245 236
3.10540000 2.73370000 1.83510000 0 240 246
3.11490000 2.73460000 1.83540000 0 248 227
3.10450000 2.74480000 1.83700000 0 249 235
3.12460000 2.73300000 1.82720000 0 232 253
3.12370000 2.74390000 1.82600000 0 235 236
3.12470000 2.73550000 1.83280000 0 247 239
3.11550000 2.74490000 1.83410000 0 245 238
3.10370000 2.72790000 1.84620000 0 255 238
3.11780000 2.72850000 1.84120000 0 255 225
3.12480000 2.72950000 1.84320000 0 255 233
3.10430000 2.73710000 1.84360000 0 251 231
3.11510000 2.73710000 1.84520000 0 255 218
3.10380000 2.74400000 1.84450000 0 246 234
3.10350000 2.74450000 1.85070000 0 246 244
3.12090000 2.74020000 1.83820000 0 229 255
3.11660000 2.74380000 1.84520000 0 248 237
3.12230000 2.73650000 1.85120000 0 255 242
3.12520000 2.73680000 1.84600000 0 255 230
3.12210000 2.74420000 1.85250000 0 255 217
3.12540000 2.74260000 1.84580000 0 255 231
3.13560000 2.72690000 1.79620000 0 255 235
3.14180000 2.72930000 1.79220000 0 229 255
3.14670000 2.72750000 1.80170000 0 255 239
3.15540000 2.72760000 1.79350000 0 255 233
3.16200000 2.72800000 1.80220000 0 255 233
3.13530000 2.73740000 1.79370000 0 255 225
3.14440000 2.73600000 1.79620000 0 255 233
3.13610000 2.74430000 1.79590000 0 240 236
3.14440000 2.74470000 1.79340000 0 225 255
3.13500000 2.73710000 1.80020000 0 255 233
3.14440000 2.73590000 1.80320000 0 255 228
3.14580000 2.74500000 1.80170000 0 208 255
3.15500000 2.73240000 1.79340000 0 249 233
3.15320000 2.74360000 1.79550000 0 231 255
3.15330000 2.73770000 1.80470000 0 255 232
3.15310000 2.74320000 1.80460000 0 232 246
3.13220000 2.72740000 1.80720000 0 238 255
3.13460000 2.72960000 1.81520000 0 242 238
3.14180000 2.72810000 1.81520000 0 225 255
3.15900000 2.72800000 1.80660000 0 255 234
3.13440000 2.74510000 1.80560000 0 230 252
3.13650000 2.74400000 1.81320000 0 243 235
3.13360000 2.73590000 1.81440000 0 248 225
3.14660000 2.73670000 1.81650000 0 255 229
3.15610000 2.73480000 1.81420000 0 235 248
3.14820000 2.74410000 1.81670000 0 255 225
3.15560000 2.74320000 1.81490000 0 223 253
3.16590000 2.72780000 1.79470000 0 255 230
3.18440000 2.72930000 1.79270000 0 255 240
3.18290000 2.72640000 1.80270000 0 255 237
3.16520000 2.73260000 1.79320000 0 255 233
3.17510000 2.73330000 1.79490000 0 252 231
3.16630000 2.74420000 1.79350000 0 255 216
3.17600000 2.74310000 1.79400000 0 224 241
3.16620000 2.74560000 1.80300000 0 238 232
3.18500000 2.73480000 1.79490000 0 255 237
3.18490000 2.74520000 1.79550000 0 242 250
3.19460000 2.74390000 1.79520000 0 212 250
3.18630000 2.73370000 1.80400000 0 235 242
3.19410000 2.74410000 1.80440000 0 245 245
3.16720000 2.72740000 1.81020000 0 240 250
3.17680000 2.72910000 1.81390000 0 249 242
3.19100000 2.72840000 1.81120000 0 255 255
3.18480000 2.73090000 1.81600000 0 244 244
3.18290000 2.72480000 1.81920000 0 255 246
3.16360000 2.73220000 1.80530000 0 250 243
3.17630000 2.73320000 1.80690000 0 233 250
3.17600000 2.73280000 1.81140000 0 255 234
3.17180000 2.74510000 1.80820000 0 255 221
3.17240000 2.74380000 1.81320000 0 241 233
3.16560000 2.73300000 1.81440000 0 227 245
3.16480000 2.74400000 1.81620000 0 255 250
3.18240000 2.74500000 1.80620000 0 255 239
3.18750000 2.74410000 1.81700000 0 248 231
3.19340000 2.74400000 1.81450000 0 243 244
3.13470000 2.72950000 1.82290000 0 235 255
3.14410000 2.72970000 1.82370000 0 255 231
3.16290000 2.73120000 1.82420000 0 242 235
3.13520000 2.73230000 1.82520000 0 237 247
3.14280000 2.73420000 1.82520000 0 242 252
3.13470000 2.74680000 1.82770000 0 223 248
3.14350000 2.74470000 1.82520000 0 242 233
3.13250000 2.73510000 1.83440000 0 255 231
3.14520000 2.73760000 1.83620000 0 243 245
3.13980000 2.74200000 1.83420000 0 212 255
3.14450000 2.74320000 1.83390000 0 255 222
3.15440000 2.73400000 1.82390000 0 243 237
3.15810000 2.74480000 1.82270000 0 238 240
3.16020000 2.73780000 1.83470000 0 255 220
3.15710000 2.74370000 1.83560000 0 239 253
3.13530000 2.72820000 1.84570000 0 255 235
3.14170000 2.72840000 1.84920000 0 255 238
3.15410000 2.72930000 1.85320000 0 255 225
3.14110000 2.73670000 1.84420000 0 255 221
3.13560000 2.74410000 1.84320000 0 243 243
3.13730000 2.73570000 1.84620000 0 255 255
3.14090000 2.74200000 1.84820000 0 255 229
3.15660000 2.73740000 1.83820000 0 255 225
3.15890000 2.74300000 1.84520000 0 225 255
3.15510000 2.73870000 1.84570000 0 255 231
3.16470000 2.72880000 1.82420000 0 249 247
3.16440000 2.72910000 1.83520000 0 255 242
3.18330000 2.72980000 1.82520000 0 255 250
3.19420000 2.72960000 1.82620000 0 246 255
3.17280000 2.73440000 1.82620000 0 244 247
3.16330000 2.74470000 1.82470000 0 230 246
3.17560000 2.74410000 1.82660000 0 231 240
3.17770000 2.73520000 1.83520000 0 255 224
3.16500000 2.74390000 1.83440000 0 233 249
3.17490000 2.74430000 1.83520000 0 255 235
3.18650000 2.73520000 1.82390000 0 245 231
3.18340000 2.74510000 1.82390000 0 235 230
3.19460000 2.74470000 1.82320000 0 231 235
3.18320000 2.73390000 1.83590000 0 255 223
3.19430000 2.73530000 1.83640000 0 255 222
3.18360000 2.74580000 1.83380000 0 253 221
3.17330000 2.72910000 1.83820000 0 246 255
3.16910000 2.72900000 1.85320000 0 255 246
3.16590000 2.73780000 1.84350000 0 255 240
3.17300000 2.73990000 1.84020000 0 255 216
3.17420000 2.74500000 1.84470000 0 255 225
3.16340000 2.73320000 1.85290000 0 246 247
3.16590000 2.74580000 1.84540000 0 246 231
3.18510000 2.73860000 1.84370000 0 255 233
3.18680000 2.74640000 1.84220000 0 255 233
3.19290000 2.74370000 1.83760000 0 255 221
3.18680000 2.73730000 1.85220000 0 233 248
3.07140000 2.76360000 1.79490000 0 201 253
3.07700000 2.75310000 1.80270000 0 238 231
3.09510000 2.76260000 1.79550000 0 130 255
3.09660000 2.75380000 1.79920000 0 255 221
3.07340000 2.76530000 1.80270000 0 152 255
3.07160000 2.77280000 1.80520000 0 127 255
3.08520000 2.76400000 1.79420000 0 164 255
3.09790000 2.77390000 1.79720000 0 127 255
3.09170000 2.77060000 1.80020000 0 144 255
3.09880000 2.76510000 1.80470000 0 161 255
3.08890000 2.77310000 1.80020000 0 119 255
3.08090000 2.75140000 1.80820000 0 255 233
3.07450000 2.75300000 1.81920000 0 209 239
3.08550000 2.76230000 1.80670000 0 212 250
3.08510000 2.75410000 1.81720000 0 212 230
3.09620000 2.75470000 1.81670000 0 191 240
3.09430000 2.76360000 1.81670000 0 242 248
3.07710000 2.76630000 1.81920000 0 255 242
3.10890000 2.75080000 1.79420000 0 255 216
3.11470000 2.75300000 1.80420000 0 178 255
3.09960000 2.75900000 1.80320000 0 255 250
3.10500000 2.76280000 1.80400000 0 151 253
3.12480000 2.75300000 1.79420000 0 255 204
3.12530000 2.75340000 1.80270000 0 199 240
3.12060000 2.76040000 1.79820000 0 255 242
3.13020000 2.76320000 1.80420000 0 255 233
3.10340000 2.76410000 1.79220000 0 195 255
3.10260000 2.77080000 1.79420000 0 127 255
3.11070000 2.77130000 1.79120000 0 127 255
3.10820000 2.75010000 1.80920000 0 255 208
3.10230000 2.75740000 1.81220000 0 127 255
3.11220000 2.76340000 1.80750000 0 149 255
3.11500000 2.75590000 1.81420000 0 208 243
3.10930000 2.76060000 1.81520000 0 221 255
3.11700000 2.76280000 1.81120000 0 127 255
3.12580000 2.75240000 1.81450000 0 255 223
3.12570000 2.76270000 1.81420000 0 144 255
3.12190000 2.76700000 1.80920000 0 161 255
3.07630000 2.75610000 1.82290000 0 161 255
3.07670000 2.76220000 1.82220000 0 246 255
3.06760000 2.75470000 1.83320000 0 255 222
3.07520000 2.75620000 1.83340000 0 255 235
3.08670000 2.75200000 1.82170000 0 238 235
3.09680000 2.75380000 1.82720000 0 255 231
3.09720000 2.76070000 1.82420000 0 255 250
3.08600000 2.75580000 1.83240000 0 242 239
3.09660000 2.75650000 1.83320000 0 178 255
3.06810000 2.75560000 1.84520000 0 223 234
3.07280000 2.75370000 1.84470000 0 208 252
3.07410000 2.76020000 1.85020000 0 255 221
3.09580000 2.76340000 1.84520000 0 255 221
3.09500000 2.75510000 1.84920000 0 136 255
3.08810000 2.75880000 1.84720000 0 144 255
3.09810000 2.75650000 1.85320000 0 229 255
3.07520000 2.77010000 1.84820000 0 178 255
3.08750000 2.77060000 1.84520000 0 144 255
3.10550000 2.75150000 1.82420000 0 249 227
3.11380000 2.74790000 1.82820000 0 238 255
3.10640000 2.76010000 1.82520000 0 255 238
3.10680000 2.75550000 1.83270000 0 216 240
3.11700000 2.75390000 1.82520000 0 240 235
3.12290000 2.75540000 1.82290000 0 240 239
3.11630000 2.75030000 1.83320000 0 255 229
3.12430000 2.75230000 1.83520000 0 229 240
3.12740000 2.76310000 1.83550000 0 218 233
3.10410000 2.75010000 1.84020000 0 246 255
3.10790000 2.76210000 1.84520000 0 255 216
3.10930000 2.76010000 1.85220000 0 170 255
3.12170000 2.75180000 1.84570000 0 238 235
3.10210000 2.77070000 1.84220000 0 161 255
3.11380000 2.76530000 1.83920000 0 204 246
3.13900000 2.76030000 1.79420000 0 255 250
3.13840000 2.75220000 1.79920000 0 255 225
3.13560000 2.75530000 1.80220000 0 182 255
3.14360000 2.75430000 1.79820000 0 110 255
3.14700000 2.76040000 1.79820000 0 255 238
3.15480000 2.75280000 1.79290000 0 209 242
3.15330000 2.75640000 1.80270000 0 242 235
3.14330000 2.75460000 1.80590000 0 243 230
3.13420000 2.75520000 1.81590000 0 252 242
3.14550000 2.76310000 1.81470000 0 208 248
3.14640000 2.75700000 1.81920000 0 255 208
3.14880000 2.76310000 1.80720000 0 221 255
3.15560000 2.76180000 1.80820000 0 255 238
3.15710000 2.75970000 1.81420000 0 255 212
3.15630000 2.76310000 1.81450000 0 203 245
3.13240000 2.76450000 1.81370000 0 165 255
3.15170000 2.77060000 1.81620000 0 153 255
3.16440000 2.75540000 1.79450000 0 201 236
3.17150000 2.75270000 1.79020000 0 136 255
3.16680000 2.76060000 1.79420000 0 255 246
3.16570000 2.75900000 1.80270000 0 246 238
3.17460000 2.75620000 1.80320000 0 249 237
3.17490000 2.76080000 1.80520000 0 255 225
3.18470000 2.75530000 1.79520000 0 255 216
3.19170000 2.75580000 1.79670000 0 255 216
3.18590000 2.76350000 1.79920000 0 229 255
3.18570000 2.75600000 1.80420000 0 238 246
3.17690000 2.75140000 1.81720000 0 255 246
3.16380000 2.75710000 1.81390000 0 248 234
3.16900000 2.76060000 1.81720000 0 187 255
3.19060000 2.75460000 1.81020000 0 246 255
3.19050000 2.75590000 1.80920000 0 255 212
3.18580000 2.76200000 1.81720000 0 229 240
3.14030000 2.75030000 1.82420000 0 212 255
3.13440000 2.75690000 1.82270000 0 255 223
3.13600000 2.76110000 1.82320000 0 136 255
3.14450000 2.76160000 1.83120000 0 255 229
3.15490000 2.75340000 1.82720000 0 242 255
3.16180000 2.75180000 1.82420000 0 229 255
3.14780000 2.76200000 1.82750000 0 172 246
3.15360000 2.75640000 1.83390000 0 255 220
3.15740000 2.76330000 1.83320000 0 127 255
3.14520000 2.77300000 1.83320000 0 178 255
3.15380000 2.76490000 1.82920000 0 199 229
3.13750000 2.75480000 1.83790000 0 221 242
3.13750000 2.75520000 1.84220000 0 255 216
3.14510000 2.75280000 1.84220000 0 255 220
3.15450000 2.75430000 1.84390000 0 232 243
3.15640000 2.75480000 1.85290000 0 242 232
3.17030000 2.75190000 1.82820000 0 204 255
3.16910000 2.75010000 1.83320000 0 229 255
3.17230000 2.76320000 1.83520000 0 191 238
3.18780000 2.75330000 1.82590000 0 235 238
3.18400000 2.75270000 1.83320000 0 255 246
3.16540000 2.76520000 1.82220000 0 195 240
3.17100000 2.77020000 1.82620000 0 153 255
3.17470000 2.76580000 1.82220000 0 199 240
3.16820000 2.76550000 1.83720000 0 127 255
3.18630000 2.77150000 1.82320000 0 161 255
3.19220000 2.77200000 1.82520000 0 144 255
3.16870000 2.75650000 1.84220000 0 212 238
3.17650000 2.76370000 1.84120000 0 110 255
3.17790000 2.75620000 1.84420000 0 229 255
3.16650000 2.75190000 1.85020000 0 255 229
3.18480000 2.75400000 1.84470000 0 233 245
3.19400000 2.75140000 1.85020000 0 255 229
3.16370000 2.76600000 1.85320000 0 216 255
3.18430000 2.76420000 1.84620000 0 176 246
3.09640000 2.72840000 1.85620000 0 255 238
3.08520000 2.72780000 1.86220000 0 255 231
3.07470000 2.73310000 1.85650000 0 244 242
3.07580000 2.74440000 1.85420000 0 235 235
3.07410000 2.73460000 1.86550000 0 255 241
3.07440000 2.74450000 1.86490000 0 251 230
3.08360000 2.73380000 1.85560000 0 246 237
3.09370000 2.73310000 1.85420000 0 244 246
3.09500000 2.74320000 1.85790000 0 255 234
3.08550000 2.73540000 1.86680000 0 251 238
3.09540000 2.73610000 1.86740000 0 255 228
3.08440000 2.74220000 1.86220000 0 255 226
3.09330000 2.74390000 1.86420000 0 238 243
3.07460000 2.72720000 1.87620000 0 255 246
3.08050000 2.72940000 1.87320000 0 255 225
3.07860000 2.72710000 1.88220000 0 255 221
3.08620000 2.73110000 1.87820000 0 255 229
3.07550000 2.73640000 1.87550000 0 255 230
3.07670000 2.74570000 1.87390000 0 249 232
3.07400000 2.73510000 1.88420000 0 253 240
3.08330000 2.74580000 1.88350000 0 221 241
3.09290000 2.73400000 1.87390000 0 255 242
3.09470000 2.74430000 1.87320000 0 238 229
3.08580000 2.73590000 1.88510000 0 247 229
3.09490000 2.73230000 1.88480000 0 252 237
3.09420000 2.74440000 1.88340000 0 236 229
3.10170000 2.72790000 1.85820000 0 255 238
3.11910000 2.72540000 1.85420000 0 255 233
3.12270000 2.72700000 1.86120000 0 255 221
3.11570000 2.72710000 1.86520000 0 255 240
3.10720000 2.73640000 1.85490000 0 255 237
3.11370000 2.73270000 1.85470000 0 255 230
3.11450000 2.74480000 1.85520000 0 242 255
3.10580000 2.73350000 1.86550000 0 243 243
3.11430000 2.73640000 1.86820000 0 255 229
3.10690000 2.74200000 1.86650000 0 248 228
3.12690000 2.73570000 1.86390000 0 238 253
3.11620000 2.74430000 1.86420000 0 225 252
3.12190000 2.74550000 1.86320000 0 250 252
3.11220000 2.72740000 1.87520000 0 255 221
3.10740000 2.72970000 1.87670000 0 255 242
3.09990000 2.72990000 1.88320000 0 255 212
3.12310000 2.72690000 1.87920000 0 255 246
3.10570000 2.73420000 1.87440000 0 246 233
3.11390000 2.73310000 1.87590000 0 226 255
3.10580000 2.74650000 1.87320000 0 218 252
3.11440000 2.74210000 1.87220000 0 255 218
3.10630000 2.73500000 1.88420000 0 245 242
3.12490000 2.73560000 1.87420000 0 243 242
3.12470000 2.74480000 1.87400000 0 238 230
3.11710000 2.73260000 1.88490000 0 247 243
3.12590000 2.74390000 1.88190000 0 204 255
3.08020000 2.72790000 1.88820000 0 255 225
3.08070000 2.72840000 1.89120000 0 255 225
3.06780000 2.73580000 1.88620000 0 248 246
3.07410000 2.74510000 1.88540000 0 242 240
3.08000000 2.73950000 1.89620000 0 255 208
3.07940000 2.73190000 1.89720000 0 255 229
3.07600000 2.74500000 1.89500000 0 248 248
3.09580000 2.73510000 1.89390000 0 246 230
3.08380000 2.74330000 1.89400000 0 244 240
3.09560000 2.74480000 1.89520000 0 243 232
3.07250000 2.72970000 1.91620000 0 255 233
3.09920000 2.72900000 1.91320000 0 255 233
3.07500000 2.73760000 1.90320000 0 244 227
3.07480000 2.74330000 1.90480000 0 247 233
3.07520000 2.74370000 1.91490000 0 255 223
3.08500000 2.73460000 1.90490000 0 255 244
3.09560000 2.73570000 1.90380000 0 255 232
3.08620000 2.74450000 1.90270000 0 244 245
3.09390000 2.74450000 1.90550000 0 243 246
3.08650000 2.74460000 1.91520000 0 247 234
3.09480000 2.74260000 1.91320000 0 235 247
3.11480000 2.72820000 1.89470000 0 255 235
3.12100000 2.72840000 1.88520000 0 255 238
3.12600000 2.73180000 1.89460000 0 231 251
3.12860000 2.72870000 1.89670000 0 255 227
3.10680000 2.74500000 1.88570000 0 255 229
3.11400000 2.74390000 1.88600000 0 242 234
3.10670000 2.73370000 1.89690000 0 255 225
3.11150000 2.73440000 1.89490000 0 255 231
3.10600000 2.74440000 1.89420000 0 226 250
3.11400000 2.74290000 1.89420000 0 250 230
3.12410000 2.73300000 1.88600000 0 240 245
3.11460000 2.72900000 1.91620000 0 246 240
3.12790000 2.72960000 1.90820000 0 255 225
3.10560000 2.73640000 1.90500000 0 255 241
3.10250000 2.73680000 1.91570000 0 255 223
3.11510000 2.73730000 1.91680000 0 253 233
3.10530000 2.74340000 1.91420000 0 251 238
3.11120000 2.74200000 1.91320000 0 255 221
3.11590000 2.73250000 1.90300000 0 255 236
3.12650000 2.73260000 1.90360000 0 251 241
3.11570000 2.74590000 1.90620000 0 243 235
3.12600000 2.74510000 1.90350000 0 246 238
3.12120000 2.73500000 1.91320000 0 246 255
3.12570000 2.74270000 1.91440000 0 246 233
3.13970000 2.72660000 1.86220000 0 255 238
3.14190000 2.73020000 1.86820000 0 255 221
3.13440000 2.73480000 1.85480000 0 253 236
3.14600000 2.73520000 1.85550000 0 240 249
3.13570000 2.74690000 1.85520000 0 241 241
3.14650000 2.74480000 1.85400000 0 255 224
3.13560000 2.73830000 1.86520000 0 255 235
3.13570000 2.74610000 1.86550000 0 230 233
3.15620000 2.73400000 1.85380000 0 253 239
3.15470000 2.74300000 1.85540000 0 243 238
3.15310000 2.73620000 1.86490000 0 255 236
3.15510000 2.74520000 1.86400000 0 223 242
3.14750000 2.74470000 1.86600000 0 236 243
3.13530000 2.72850000 1.87390000 0 246 246
3.15750000 2.72770000 1.87220000 0 255 237
3.15870000 2.72950000 1.88420000 0 255 233
3.14410000 2.73330000 1.87300000 0 231 248
3.13290000 2.74500000 1.87650000 0 238 246
3.14240000 2.74420000 1.87420000 0 226 249
3.13280000 2.73710000 1.87720000 0 249 249
3.13210000 2.73400000 1.88220000 0 255 218
3.14420000 2.73740000 1.88420000 0 253 239
3.13560000 2.74350000 1.88240000 0 253 229
3.15430000 2.73670000 1.87380000 0 239 241
3.15370000 2.74270000 1.87170000 0 255 250
3.17310000 2.73270000 1.85370000 0 250 250
3.16500000 2.74430000 1.85540000 0 246 234
3.17150000 2.74480000 1.85820000 0 255 224
3.17370000 2.73530000 1.86480000 0 246 237
3.17550000 2.74510000 1.86340000 0 222 239
3.18650000 2.74410000 1.85560000 0 255 218
3.18370000 2.73440000 1.86540000 0 222 250
3.18210000 2.74740000 1.86320000 0 255 242
3.19470000 2.74660000 1.86120000 0 244 237
3.17810000 2.72840000 1.88020000 0 255 238
3.16780000 2.73360000 1.86920000 0 246 255
3.16710000 2.73700000 1.87150000 0 240 235
3.16640000 2.74500000 1.86920000 0 255 233
3.16700000 2.74310000 1.87620000 0 255 204
3.17690000 2.74450000 1.87490000 0 255 215
3.17420000 2.73410000 1.88350000 0 255 237
3.19000000 2.73420000 1.87020000 0 229 255
3.19180000 2.73820000 1.87520000 0 255 216
3.18720000 2.74540000 1.87420000 0 255 214
3.19290000 2.74410000 1.87520000 0 255 244
3.18300000 2.73470000 1.88420000 0 255 250
3.13190000 2.72720000 1.89270000 0 250 248
3.14300000 2.72770000 1.88770000 0 255 224
3.14210000 2.73110000 1.89520000 0 255 246
3.14130000 2.72680000 1.89920000 0 255 242
3.13360000 2.73340000 1.89570000 0 248 245
3.13570000 2.74330000 1.89540000 0 250 226
3.15380000 2.73320000 1.88520000 0 255 229
3.16290000 2.74530000 1.88720000 0 255 220
3.16280000 2.73290000 1.89650000 0 255 234
3.14760000 2.74450000 1.89440000 0 255 228
3.15520000 2.74490000 1.89350000 0 255 217
3.16100000 2.74130000 1.89420000 0 255 208
3.13590000 2.72970000 1.90320000 0 255 233
3.13760000 2.72970000 1.91220000 0 255 221
3.15450000 2.72870000 1.90350000 0 255 234
3.13460000 2.73260000 1.90380000 0 245 248
3.14630000 2.73230000 1.90390000 0 255 234
3.13450000 2.74630000 1.90420000 0 255 221
3.14590000 2.74220000 1.90450000 0 255 226
3.13550000 2.73340000 1.91440000 0 220 249
3.14400000 2.73500000 1.91250000 0 255 227
3.13530000 2.74300000 1.91370000 0 255 231
3.14650000 2.74620000 1.91450000 0 206 249
3.15430000 2.73460000 1.90660000 0 255 245
3.15490000 2.74410000 1.90530000 0 255 223
3.15520000 2.73260000 1.91470000 0 255 227
3.15490000 2.74380000 1.91590000 0 255 212
3.17410000 2.72950000 1.90020000 0 255 250
3.19190000 2.73100000 1.88620000 0 255 212
3.16500000 2.73920000 1.88720000 0 255 225
3.17450000 2.74560000 1.88720000 0 255 237
3.17430000 2.73310000 1.89470000 0 255 243
3.18450000 2.74160000 1.88590000 0 255 223
3.18670000 2.73870000 1.89820000 0 255 250
3.18410000 2.74340000 1.89450000 0 255 222
3.16480000 2.73580000 1.90270000 0 255 248
3.17660000 2.73600000 1.90490000 0 255 241
3.16910000 2.74350000 1.90420000 0 255 216
3.17530000 2.74500000 1.90370000 0 255 226
3.16640000 2.73270000 1.91390000 0 255 244
3.17560000 2.73520000 1.91520000 0 255 216
3.16600000 2.74630000 1.91070000 0 186 255
3.17390000 2.74580000 1.91390000 0 255 223
3.18390000 2.73600000 1.90520000 0 255 238
3.19470000 2.73380000 1.90280000 0 251 243
3.18150000 2.73540000 1.91620000 0 246 238
3.18780000 2.74570000 1.91250000 0 240 242
3.06880000 2.75660000 1.85450000 0 226 245
3.07420000 2.75200000 1.86170000 0 255 248
3.08420000 2.75620000 1.85390000 0 226 245
3.08580000 2.75410000 1.86370000 0 233 255
3.07500000 2.77400000 1.85520000 0 131 255
3.08100000 2.77450000 1.85820000 0 127 255
3.09840000 2.76610000 1.86620000 0 178 255
3.08590000 2.77220000 1.86220000 0 136 255
3.09630000 2.77390000 1.86720000 0 135 255
3.06940000 2.75540000 1.87470000 0 246 238
3.07460000 2.75190000 1.87520000 0 237 253
3.08370000 2.74800000 1.87220000 0 255 255
3.08970000 2.75040000 1.87320000 0 255 238
3.08710000 2.75440000 1.88450000 0 232 242
3.06760000 2.76690000 1.87520000 0 186 255
3.08160000 2.77010000 1.87620000 0 221 255
3.07310000 2.76600000 1.87720000 0 229 255
3.08420000 2.76600000 1.87420000 0 209 255
3.09110000 2.76640000 1.88020000 0 161 255
3.10370000 2.75260000 1.85650000 0 237 238
3.11470000 2.75680000 1.85420000 0 201 242
3.10350000 2.76090000 1.86720000 0 221 255
3.12830000 2.75700000 1.85620000 0 161 255
3.12270000 2.75270000 1.86470000 0 242 235
3.12140000 2.76080000 1.86320000 0 246 255
3.11730000 2.76980000 1.86520000 0 208 255
3.10660000 2.75580000 1.87370000 0 233 227
3.11400000 2.75280000 1.87020000 0 255 227
3.10670000 2.75720000 1.88450000 0 201 235
3.11630000 2.75100000 1.86920000 0 204 255
3.12570000 2.76210000 1.87620000 0 229 255
3.12580000 2.75320000 1.87920000 0 255 216
3.12150000 2.76010000 1.88220000 0 136 255
3.10500000 2.77390000 1.87190000 0 155 255
3.11570000 2.77300000 1.87620000 0 127 255
3.12110000 2.77080000 1.87920000 0 119 255
3.11660000 2.76750000 1.88420000 0 178 255
3.12490000 2.77360000 1.88420000 0 140 255
3.07610000 2.75730000 1.89300000 0 208 245
3.08100000 2.75710000 1.89220000 0 157 255
3.09910000 2.75020000 1.88720000 0 255 212
3.09330000 2.75530000 1.89470000 0 195 231
3.08240000 2.77730000 1.89920000 0 110 255
3.09580000 2.77480000 1.89420000 0 131 255
3.07720000 2.75180000 1.90270000 0 225 240
3.07440000 2.75500000 1.91220000 0 225 235
3.08090000 2.75540000 1.91020000 0 246 255
3.09620000 2.75150000 1.90520000 0 216 229
3.08390000 2.75590000 1.90520000 0 240 236
3.09520000 2.75230000 1.91420000 0 255 218
3.07120000 2.77670000 1.90220000 0 127 255
3.08420000 2.76760000 1.91520000 0 246 255
3.09890000 2.76940000 1.91220000 0 246 255
3.10280000 2.76310000 1.88520000 0 148 255
3.10130000 2.75620000 1.89520000 0 212 255
3.12530000 2.75430000 1.89290000 0 232 239
3.12120000 2.74830000 1.89320000 0 255 242
3.11650000 2.75050000 1.89720000 0 221 255
3.10920000 2.77230000 1.88920000 0 127 255
3.10910000 2.75500000 1.90120000 0 255 208
3.10260000 2.75420000 1.91390000 0 229 238
3.11740000 2.75270000 1.90370000 0 231 236
3.12800000 2.75520000 1.90920000 0 255 204
3.11600000 2.75720000 1.91320000 0 242 231
3.10430000 2.76600000 1.90820000 0 255 255
3.12220000 2.76640000 1.90320000 0 255 255
3.11810000 2.77130000 1.90820000 0 246 255
3.12050000 2.76470000 1.91620000 0 255 204
3.12840000 2.77050000 1.91520000 0 178 255
3.14130000 2.75500000 1.85920000 0 246 255
3.13840000 2.75710000 1.85670000 0 255 208
3.13270000 2.76340000 1.85770000 0 208 255
3.15150000 2.76130000 1.85720000 0 229 255
3.15540000 2.75420000 1.86150000 0 212 255
3.14480000 2.76420000 1.85750000 0 195 255
3.13710000 2.77230000 1.86320000 0 238 255
3.15810000 2.77470000 1.86020000 0 221 255
3.13360000 2.76110000 1.87570000 0 199 233
3.14070000 2.75720000 1.87370000 0 195 235
3.13440000 2.75090000 1.88120000 0 255 242
3.14210000 2.74830000 1.88020000 0 255 208
3.15330000 2.75510000 1.87320000 0 191 231
3.14530000 2.76400000 1.86920000 0 221 255
3.13180000 2.77250000 1.88370000 0 131 255
3.14280000 2.77410000 1.88370000 0 131 255
3.15480000 2.77480000 1.87720000 0 127 255
3.17630000 2.75650000 1.85720000 0 255 225
3.17760000 2.75550000 1.86350000 0 181 255
3.16410000 2.76130000 1.86270000 0 178 255
3.16410000 2.75880000 1.86620000 0 255 221
3.17730000 2.76220000 1.86520000 0 144 255
3.18650000 2.75520000 1.85520000 0 255 219
3.18490000 2.75660000 1.86190000 0 198 246
3.19050000 2.76300000 1.86420000 0 204 240
3.17280000 2.77180000 1.85520000 0 229 255
3.17140000 2.76470000 1.85920000 0 187 255
3.18340000 2.76390000 1.85390000 0 220 255
3.19130000 2.77710000 1.86820000 0 136 255
3.16760000 2.75280000 1.87020000 0 255 246
3.17900000 2.75220000 1.87020000 0 255 216
3.16520000 2.76160000 1.87120000 0 144 255
3.17250000 2.75620000 1.88270000 0 233 238
3.18440000 2.75400000 1.87820000 0 255 233
3.18050000 2.75080000 1.88120000 0 255 246
3.16770000 2.77670000 1.87520000 0 136 255
3.18010000 2.77660000 1.87220000 0 136 255
3.13720000 2.75180000 1.89570000 0 238 250
3.15410000 2.74890000 1.88570000 0 255 218
3.14750000 2.75810000 1.88720000 0 255 204
3.15510000 2.75270000 1.89590000 0 232 238
3.16160000 2.75480000 1.89520000 0 212 255
3.13170000 2.76660000 1.88720000 0 212 227
3.14080000 2.76520000 1.88820000 0 170 255
3.14150000 2.76460000 1.89520000 0 238 255
3.15830000 2.76950000 1.89020000 0 153 255
3.16130000 2.76600000 1.89320000 0 229 255
3.15650000 2.77690000 1.89350000 0 170 255
3.13680000 2.75200000 1.90470000 0 231 237
3.14530000 2.75580000 1.91070000 0 242 250
3.14240000 2.76020000 1.91020000 0 212 255
3.14780000 2.75490000 1.90520000 0 233 250
3.15510000 2.75710000 1.90420000 0 229 243
3.13640000 2.77040000 1.90320000 0 229 255
3.14610000 2.77430000 1.91220000 0 170 255
3.16190000 2.77420000 1.90920000 0 178 255
3.15810000 2.77220000 1.91320000 0 212 255
3.16860000 2.75320000 1.88920000 0 246 233
3.17610000 2.75310000 1.89220000 0 229 255
3.17720000 2.74810000 1.89470000 0 255 218
3.18510000 2.76040000 1.88720000 0 255 225
3.19500000 2.75370000 1.89350000 0 238 240
3.18300000 2.75690000 1.89420000 0 229 255
3.17420000 2.76510000 1.89270000 0 195 255
3.16500000 2.77490000 1.89570000 0 131 255
3.17400000 2.77260000 1.89620000 0 178 255
3.17990000 2.76880000 1.88820000 0 255 250
3.18120000 2.76420000 1.89720000 0 255 221
3.18760000 2.77160000 1.89520000 0 161 255
3.19320000 2.77740000 1.89520000 0 115 255
3.16560000 2.75430000 1.90570000 0 221 235
3.17370000 2.75380000 1.90470000 0 255 231
3.17160000 2.75360000 1.91350000 0 209 255
3.18400000 2.74840000 1.90250000 0 229 250
3.18630000 2.75460000 1.90370000 0 221 255
3.18510000 2.76340000 1.90520000 0 223 239
3.18540000 2.76130000 1.91220000 0 255 208
3.18530000 2.75680000 1.91350000 0 246 232
3.17320000 2.76990000 1.90820000 0 204 255
3.17840000 2.77540000 1.90520000 0 170 255
3.17750000 2.76520000 1.91120000 0 255 250
3.18690000 2.77490000 1.90310000 0 137 255
3.18660000 2.77540000 1.91420000 0 154 252
3.19630000 2.73160000 1.79550000 0 232 242
3.20410000 2.72850000 1.79720000 0 249 246
3.21380000 2.72750000 1.79670000 0 255 240
3.22500000 2.73120000 1.79870000 0 238 255
3.22560000 2.72690000 1.80520000 0 243 246
3.20380000 2.73450000 1.79430000 0 241 239
3.20490000 2.74530000 1.79420000 0 235 237
3.19620000 2.73390000 1.80360000 0 253 232
3.20390000 2.73480000 1.80500000 0 252 241
3.20350000 2.74300000 1.80320000 0 252 239
3.21760000 2.73470000 1.79470000 0 246 246
3.22550000 2.74370000 1.79340000 0 223 248
3.21570000 2.73550000 1.80350000 0 250 242
3.22440000 2.73330000 1.80450000 0 247 250
3.21430000 2.74610000 1.80170000 0 208 255
3.22300000 2.74410000 1.80270000 0 255 229
3.19800000 2.72950000 1.80620000 0 255 216
3.20990000 2.72970000 1.80820000 0 255 221
3.20730000 2.72770000 1.81220000 0 255 233
3.21420000 2.72890000 1.80920000 0 250 240
3.21530000 2.72910000 1.81450000 0 255 247
3.19570000 2.73360000 1.81550000 0 246 236
3.20550000 2.73490000 1.81570000 0 244 249
3.20520000 2.74470000 1.81500000 0 232 243
3.21480000 2.73460000 1.81350000 0 245 240
3.22500000 2.73230000 1.81400000 0 253 230
3.21540000 2.74490000 1.81420000 0 239 242
3.22410000 2.74600000 1.81340000 0 233 241
3.23800000 2.72940000 1.79320000 0 255 208
3.24230000 2.72850000 1.79520000 0 255 255
3.23560000 2.73400000 1.79460000 0 246 242
3.24140000 2.74570000 1.79150000 0 255 228
3.23520000 2.74710000 1.79420000 0 240 225
3.23550000 2.73390000 1.80460000 0 249 237
3.24280000 2.73490000 1.80400000 0 244 246
3.23370000 2.74470000 1.80250000 0 255 229
3.24740000 2.73630000 1.79420000 0 246 235
3.25580000 2.73380000 1.79650000 0 242 240
3.25500000 2.74270000 1.79440000 0 247 242
3.25520000 2.73470000 1.80320000 0 244 239
3.24380000 2.74340000 1.80490000 0 243 234
3.24240000 2.72780000 1.81320000 0 255 249
